-0.0433352 0.050556 1.005 57 17 51
0.087664 -0.0244829 0.835 79 50 55
-0.0335236 -0.0887364 0.917 255 127 0
0.0500262 0.0809715 0.953 150 27 0
0.00437289 -0.000262204 0.933 164 4 0
0.0221457 -0.0658197 0.875 150 10 89
-0.050628 -0.0766282 0.982 211 49 0
-0.00539932 0.062681 0.96 154 57 37
0.0408746 -0.0274721 0.855 35 19 75
-0.0126547 -0.0491522 0.9 125 44 37
-0.0254593 0.0242614 0.97 155 0 0
0.023622 -0.0162717 0.9 0 0 0
0.00591864 -0.08475 0.902 255 46 0
0.0278384 0.0490891 0.958 181 3 0
0.0559477 -0.0602056 0.865 0 0 0
-0.0155906 -0.0244957 0.924 34 0 0
0.00448069 0.0274934 0.956 159 0 0
-0.030284 0.0666729 0.979 62 0 0
0.0164042 -0.0338525 0.875 194 53 35
-0.0397994 -0.060784 0.923 223 170 161
0.026378 0.0779397 0.938 198 0 0
0.0620022 -0.0399573 0.848 30 24 31
-0.000828646 -0.068981 0.884 55 0 0
-0.02027 -0.0753717 0.901 255 0 0
0.0587533 -0.01452 0.847 56 32 0
-0.0115401 0.0130407 0.947 151 0 0
-0.0149634 -0.00818052 0.939 184 0 0
-0.0126509 0.0430752 0.964 177 0 0
-0.0284196 0.0455331 0.978 185 0 0
0.0025703 -0.0233744 0.914 0 0 0
0.0154734 0.03884 0.971 189 32 42
-0.0111136 -0.0899612 0.912 255 74 0
0.0251069 -0.0479955 0.864 0 0 0
0.0380099 0.0633378 0.943 212 64 0
0.0106862 0.0620281 0.95 175 0 0
0.0154387 -0.00882857 0.915 23 3 0
-0.0475347 -0.0779921 0.922 201 0 0
0.0398228 -0.0676544 0.867 58 18 0
0.0425769 -0.0516207 0.857 0 0 0
0.00903262 -0.0544064 0.876 0 0 0
-0.0280568 -0.0614296 0.907 183 0 0
0.0721822 -0.0174849 0.837 0 0 0
0.0761961 -0.036346 0.838 72 48 26
-0.0190551 0.0586694 0.968 29 0 34
0.00809899 0.0500909 0.96 169 0 0
-0.0224269 0.0158678 0.957 176 52 0
0.00173791 -0.0132863 0.927 0 0 0
-0.00986783 0.0293151 0.957 160 23 0
-0.00250281 -0.0511073 0.89 36 0 0
0.00353206 0.0103245 0.942 156 0 0
0.0216179 -0.0725387 0.887 29 25 8
0.0337402 -0.0387757 0.857 12 0 0
0.0553009 -0.0498984 0.855 71 51 94
-0.0323791 -0.0785955 0.909 255 46 44
-0.0213723 -0.0515163 0.912 159 0 0
0.0153037 -0.0231954 0.907 145 0 0
-0.0176772 -0.0633437 0.898 20 0 0
0.0194469 0.0677547 0.943 214 25 0
-0.0091976 -0.0737832 0.892 255 50 0
-0.000905512 0.0395449 0.966 204 62 0
0.0470979 0.06989 0.948 156 0 0
-0.00845519 -0.083905 0.902 255 105 0
0.0486605 -0.0193717 0.851 30 27 19
-0.00835208 -0.0620153 0.891 163 43 0
-0.0204049 -0.0852198 0.907 255 143 0
0.0187402 0.0541325 0.952 207 47 0
0.0316592 -0.0570303 0.866 91 62 47
0.0484889 -0.0320135 0.848 26 9 15
-0.0293063 0.0345039 0.977 211 78 0
-0.0051856 -0.0201242 0.922 28 12 0
-0.0062336 0.0219813 0.95 146 0 0
-0.0349794 0.0530786 0.982 201 42 25
0.0243251 -0.0375171 0.865 3 0 0
0.00331459 -0.0573875 0.884 61 0 0
-0.00450412 0.0483426 0.961 186 30 0
0.0104274 -0.00547082 0.927 223 35 30
0.0421147 -0.0585173 0.864 89 42 94
-0.00696663 -0.00983391 0.929 49 0 0
-0.0171157 0.0249365 0.961 164 17 0
-0.00351331 0.00236993 0.937 182 0 0
-0.0432602 -0.070295 0.923 216 20 64
0.0719948 -0.0120967 0.844 12 6 0
0.064042 -0.05064 0.854 29 3 0
0.0728796 -0.0260785 0.836 57 66 50
0.00880202 0.00413424 0.939 142 0 0
-0.0135405 0.0547579 0.963 210 57 36
0.0397357 0.0712125 0.942 165 13 0
0.0170416 -0.0155829 0.909 5 0 0
0.00411511 -0.0668678 0.878 42 19 45
-0.031527 -0.0683772 0.909 209 0 8
-0.0212083 -0.0553597 0.905 82 0 0
0.037845 -0.0453037 0.859 0 0 32
-0.00921822 -0.0530119 0.894 80 0 12
-0.0331384 0.03928 0.982 233 57 0
0.00906355 -0.0471819 0.879 23 0 21
0.0585452 -0.0342344 0.844 27 42 30
0.0335189 0.0781889 0.941 147 0 0
0.00908324 0.0351291 0.969 165 16 0
0.000897075 0.0651746 0.957 198 81 32
0.00902231 -0.0617213 0.875 67 39 42
0.00770247 -0.0182172 0.913 185 14 0
0.0195913 0.0611382 0.95 182 10 0
-0.00353206 0.00855962 0.942 169 0 0
0.0549128 -0.0392091 0.849 48 47 79
0.0392717 -0.0346806 0.855 17 21 1
0.0670079 -0.0440846 0.851 26 26 3
-0.0035808 0.02657 0.955 174 0 0
-0.0413498 -0.0768775 0.919 199 8 7
-0.0219591 -0.0686195 0.901 190 0 0
-0.0160114 -0.056677 0.899 106 0 0
-0.00532621 0.015702 0.947 137 0 0
0.0147638 -0.0404098 0.875 32 0 0
0.00497188 -0.0722934 0.884 33 41 59
0.0326369 0.0667295 0.941 230 87 122
-0.0112111 -0.0269752 0.92 31 0 0
0.0331571 0.0516732 0.956 165 0 53
-0.019641 -0.0898626 0.911 255 79 0
0.0481384 0.0754564 0.951 183 10 9
0.0558183 -0.0544074 0.863 52 29 0
-0.0246016 -0.0723152 0.905 255 4 0
0.0677972 -0.015205 0.841 1 0 0
-0.0176603 -0.0126188 0.942 27 0 0
-0.00334083 -0.0737005 0.891 242 42 0
-0.0131749 -0.00289658 0.937 196 22 0
0.00435414 -0.00461237 0.929 165 0 0
0.00537683 0.0534644 0.956 167 0 0
0.0290157 0.0726675 0.938 206 9 18
-0.00809899 0.0437958 0.96 172 0 0
0.0502137 -0.060136 0.864 22 20 0
0.052095 -0.0450927 0.855 38 49 27
-0.011601 0.0220275 0.952 165 0 0
0.0291564 -0.0520423 0.864 63 42 115
0.0598988 -0.0473289 0.852 40 30 67
0.00494938 -0.0538304 0.88 13 0 0
0.0063189 0.0457369 0.963 186 10 0
-0.0350506 -0.0822722 0.912 255 0 0
0.00453225 0.0368683 0.967 195 15 0
0.0231777 0.0567482 0.951 202 34 74
-0.0017979 0.0689043 0.959 55 26 0
0.0405887 -0.062709 0.866 30 17 0
-0.00899887 0.0330042 0.96 148 0 0
0.0415457 0.0668713 0.943 176 0 0
-0.0103712 -0.0227153 0.922 0 0 0
0.0204171 0.0653807 0.947 221 73 0
0.0274728 -0.039002 0.862 7 3 0
-0.0190748 0.0541914 0.969 200 65 0
0.0462092 0.0654497 0.948 179 3 0
0.035718 -0.0586527 0.866 66 63 64
-0.0145032 0.0404917 0.967 176 34 0
0.0181477 0.0405336 0.968 169 0 0
0.00253093 -0.0828759 0.9 255 102 0
-0.00692913 -0.0167056 0.924 25 0 0
-0.0264229 0.0279535 0.972 162 0 0
0.0744469 -0.0221628 0.836 20 4 0
0.0114829 -0.057623 0.875 33 11 9
0.0761052 -0.0323823 0.837 88 61 57
0.00165167 -0.0679216 0.881 29 0 56
0.0188001 -0.0329195 0.872 55 0 0
-0.00271091 0.0367539 0.964 176 13 0
-0.00417604 -0.047826 0.891 121 41 2
-0.0138283 -0.0287612 0.922 34 0 20
0.0105399 0.00149218 0.937 142 0 0
0.0147638 -0.0305738 0.875 163 55 46
0.0346241 -0.0436943 0.859 66 52 39
-0.0170041 -0.0843701 0.907 255 112 0
-0.01009 -0.0515092 0.897 51 0 0
-0.0193823 -0.0659407 0.899 138 28 6
-0.00500562 -0.0711166 0.89 100 0 0
0.0511136 -0.0177982 0.852 20 7 0
-0.00269966 0.0617817 0.96 206 65 35
-0.0036108 0.046639 0.963 181 0 0
-0.0330709 0.0529705 0.98 166 0 0
0.0428253 -0.0567668 0.862 69 47 70
-0.0298228 -0.079447 0.909 255 29 0
0.0106871 -0.0478961 0.877 18 0 27
0.0267267 -0.051233 0.864 59 35 73
-0.0044057 0.00766089 0.94 161 0 0
0.0604124 -0.0383685 0.848 74 71 74
-0.000898013 0.0643453 0.958 161 27 0
0.0385152 -0.0363249 0.856 25 22 0
-0.0333043 -0.082182 0.911 255 0 58
0.034401 0.065848 0.941 224 53 0
-0.0178543 -0.0860694 0.907 255 91 0
0.00494376 -0.0677674 0.879 39 25 46
0.0478065 -0.0201452 0.85 15 5 0
-0.0441732 -0.0703712 0.924 208 12 56
-0.022081 -0.0554209 0.906 122 0 0
0.0677165 -0.0159738 0.84 2 5 0
0.00248594 -0.0565594 0.884 99 0 13
-0.0190748 0.0550991 0.969 156 51 0
-0.0106524 0.0130407 0.947 168 10 0
0.0415457 0.0677547 0.943 169 0 0
-0.0306749 -0.0683772 0.909 196 0 0
-0.0185189 -0.0633437 0.898 60 0 0
0.0528965 -0.0450927 0.855 29 39 18
0.0620022 -0.0391629 0.848 43 53 45
